ply
format ascii 1.0
element vertex 1118
property float x
property float y
property float z
end_header
85.40471637985978 4.95 21.032504780114724
85.40471637985978 4.125 21.351179094964944
85.40471637985978 2.175 21.66985340981517
85.40471637985978 3.75 21.988527724665392
85.40471637985978 3.75 22.307202039515616
85.40471637985978 3.975 22.62587635436584
85.40471637985978 5.175 22.94455066921606
85.40471637985978 1.05 23.263224984066284
85.40471637985978 0.375 23.581899298916507
85.40471637985978 1.65 23.90057361376673
85.40471637985978 3.225 24.219247928616955
85.40471637985978 4.2749999999999995 24.537922243467175
85.40471637985978 4.35 24.8565965583174
85.40471637985978 5.55 25.175270873167623
85.40471637985978 5.325 25.493945188017847
85.40471637985978 5.175 25.81261950286807
85.40471637985978 5.25 26.13129381771829
85.40471637985978 4.425 26.449968132568515
85.40471637985978 3.375 26.76864244741874
85.40471637985978 3.8249999999999997 27.087316762268962
85.40471637985978 3.75 27.405991077119186
85.40471637985978 2.625 27.724665391969406
85.40471637985978 2.1 28.04333970681963
85.40471637985978 2.1 28.362014021669854
85.40471637985978 1.95 28.680688336520078
85.40471637985978 2.025 28.9993626513703
85.40471637985978 2.625 29.31803696622052
85.40471637985978 1.8 29.636711281070745
85.40471637985978 2.1 29.95538559592097
85.40471637985978 0.0 30.274059910771193
85.40471637985978 1.7249999999999999 30.592734225621413
85.40471637985978 0.0 30.911408540471637
85.40471637985978 0.975 31.23008285532186
85.40471637985978 1.275 31.548757170172085
85.40471637985978 1.7249999999999999 31.86743148502231
85.40471637985978 2.4 32.18610579987253
85.40471637985978 0.825 32.504780114722756
85.40471637985978 1.05 32.823454429572976
85.40471637985978 2.3249999999999997 33.1421287444232
85.40471637985978 2.4 33.460803059273424
85.40471637985978 2.4 33.779477374123644
85.40471637985978 0.0 34.09815168897387
85.40471637985978 0.0 34.41682600382409
85.40471637985978 1.3499999999999999 34.73550031867431
85.40471637985978 2.4 35.05417463352454
85.40471637985978 0.0 35.37284894837476
85.40471637985978 2.3249999999999997 35.69152326322499
85.40471637985978 2.025 36.01019757807521
85.40471637985978 2.25 36.32887189292543
85.40471637985978 3.15 36.647546207775655
85.40471637985978 0.975 36.966220522625875
85.40471637985978 2.85 37.2848948374761
85.40471637985978 3.0 37.60356915232632
85.40471637985978 1.7249999999999999 37.92224346717654
85.40471637985978 1.8 38.24091778202677
85.40471637985978 2.85 38.55959209687699
85.40471637985978 2.3249999999999997 38.87826641172722
85.40471637985978 1.95 39.19694072657744
85.40471637985978 0.0 39.51561504142766
85.40471637985978 2.25 39.834289356277885
85.40471637985978 1.5 40.152963671128106
85.40471637985978 1.275 40.47163798597833
85.40471637985978 0.0 40.79031230082855
85.40471637985978 0.0 41.10898661567877
85.40471637985978 1.7249999999999999 41.427660930529
85.40471637985978 0.975 41.74633524537922
85.40471637985978 0.375 42.06500956022945
85.40471637985978 0.0 42.38368387507967
85.40471637985978 0.225 42.70235818992989
85.40471637985978 1.575 43.021032504780116
85.40471637985978 1.275 43.33970681963034
85.40471637985978 1.95 43.658381134480564
85.40471637985978 1.8 43.977055449330784
85.40471637985978 0.375 44.295729764181004
85.40471637985978 0.0 44.61440407903123
85.40471637985978 1.275 44.93307839388145
85.40471637985978 0.3 45.25175270873168
85.40471637985978 0.0 45.5704270235819
85.40471637985978 1.7249999999999999 45.88910133843212
85.40471637985978 2.175 46.20777565328235
85.40471637985978 0.0 46.52644996813257
85.40471637985978 2.175 46.845124282982795
85.40471637985978 1.7249999999999999 47.163798597833015
85.40471637985978 2.25 47.482472912683235
85.40471637985978 0.0 47.80114722753346
85.40471637985978 0.0 48.11982154238368
85.40471637985978 0.0 48.43849585723391
85.40471637985978 2.025 48.75717017208413
85.40471637985978 1.275 49.07584448693435
85.40471637985978 2.6999999999999997 49.39451880178458
85.40471637985978 2.4 49.7131931166348
85.40471637985978 2.1 50.031867431485026
85.40471637985978 1.65 50.350541746335246
85.40471637985978 1.65 50.669216061185466
85.40471637985978 2.6999999999999997 50.98789037603569
85.40471637985978 2.55 51.306564690885914
85.40471637985978 2.1 51.62523900573614
85.40471637985978 1.575 51.94391332058636
85.40471637985978 1.95 52.26258763543658
85.40471637985978 1.95 52.58126195028681
85.40471637985978 1.275 52.89993626513703
85.40471637985978 1.425 53.218610579987256
85.40471637985978 0.6749999999999999 53.53728489483748
85.40471637985978 1.65 53.8559592096877
85.40471637985978 1.95 54.174633524537924
85.40471637985978 1.875 54.493307839388144
85.40471637985978 0.375 54.81198215423837
85.40471637985978 1.575 55.13065646908859
85.40471637985978 0.0 55.44933078393881
85.40471637985978 0.0 55.76800509878904
85.40471637985978 1.95 56.08667941363926
85.40471637985978 1.575 56.40535372848949
85.40471637985978 0.75 56.72402804333971
85.40471637985978 0.3 57.04270235818993
85.40471637985978 0.0 57.361376673040155
85.40471637985978 0.0 57.680050987890375
85.40471637985978 0.0 57.9987253027406
85.40471637985978 1.3499999999999999 58.31739961759082
85.40471637985978 0.3 58.63607393244104
85.40471637985978 0.825 58.95474824729127
85.40471637985978 1.7249999999999999 59.27342256214149
85.40471637985978 1.425 59.59209687699172
85.40471637985978 2.55 59.91077119184194
85.40471637985978 1.575 60.22944550669216
85.40471637985978 1.8 60.548119821542386
85.40471637985978 1.7249999999999999 60.866794136392606
85.40471637985978 2.1 61.185468451242826
85.40471637985978 2.55 61.504142766093054
85.40471637985978 3.4499999999999997 61.822817080943274
85.40471637985978 2.475 62.1414913957935
85.40471637985978 2.775 62.46016571064372
85.40471637985978 2.4 62.77884002549394
85.40471637985978 3.525 63.09751434034417
85.40471637985978 2.175 63.41618865519439
85.40471637985978 2.25 63.73486297004462
85.40471637985978 2.175 64.05353728489484
85.40471637985978 1.95 64.37221159974506
85.40471637985978 2.025 64.69088591459528
85.40471637985978 2.025 65.00956022944551
85.40471637985978 3.225 65.32823454429573
85.40471637985978 2.475 65.64690885914595
85.40471637985978 2.475 65.96558317399618
85.40471637985978 2.025 66.2842574888464
85.40471637985978 2.1 66.60293180369662
85.40471637985978 2.4 66.92160611854685
85.40471637985978 1.3499999999999999 67.24028043339707
85.40471637985978 2.6999999999999997 67.55895474824729
85.40471637985978 2.775 67.87762906309752
85.40471637985978 4.05 68.19630337794774
85.40471637985978 4.2 68.51497769279796
85.40471637985978 4.35 68.83365200764818
85.40471637985978 3.3 69.15232632249841
85.40471637985978 4.425 69.47100063734862
85.40471637985978 3.8249999999999997 69.78967495219885
85.40471637985978 3.4499999999999997 70.10834926704908
85.40471637985978 3.6 70.4270235818993
85.40471637985978 3.75 70.74569789674952
85.40471637985978 3.9 71.06437221159975
85.40471637985978 0.0 71.38304652644997
85.40471637985978 0.0 71.70172084130019
85.40471637985978 0.0 72.02039515615041
85.40471637985978 2.6999999999999997 72.33906947100064
85.40471637985978 2.4 72.65774378585085
85.40471637985978 2.175 72.97641810070108
85.40471637985978 1.7249999999999999 73.29509241555131
85.72339069471 2.175 0.0
85.72339069471 2.55 0.3186743148502231
85.72339069471 2.175 0.6373486297004461
85.72339069471 2.4 0.9560229445506692
85.72339069471 2.4 1.2746972594008923
85.72339069471 2.175 1.5933715742511154
85.72339069471 2.475 1.9120458891013383
85.72339069471 2.175 2.2307202039515617
85.72339069471 2.475 2.5493945188017846
85.72339069471 2.475 2.8680688336520075
85.72339069471 2.55 3.186743148502231
85.72339069471 2.475 3.5054174633524537
85.72339069471 2.4 3.8240917782026767
85.72339069471 2.55 4.1427660930529
85.72339069471 2.25 4.461440407903123
85.72339069471 2.55 4.780114722753346
85.72339069471 2.625 5.098789037603569
85.72339069471 2.625 5.417463352453792
85.72339069471 2.475 5.736137667304015
85.72339069471 2.475 6.054811982154239
85.72339069471 2.625 6.373486297004462
85.72339069471 2.6999999999999997 6.692160611854685
85.72339069471 2.4 7.0108349267049075
85.72339069471 2.625 7.32950924155513
85.72339069471 2.6999999999999997 7.648183556405353
85.72339069471 2.625 7.966857871255577
85.72339069471 2.4 8.2855321861058
85.72339069471 2.55 8.604206500956023
85.72339069471 2.85 8.922880815806247
85.72339069471 2.625 9.241555130656469
85.72339069471 2.775 9.560229445506693
85.72339069471 3.0 9.878903760356915
85.72339069471 2.6999999999999997 10.197578075207138
85.72339069471 2.775 10.516252390057362
85.72339069471 3.0 10.834926704907584
85.72339069471 3.0 11.153601019757808
85.72339069471 3.0 11.47227533460803
85.72339069471 2.775 11.790949649458254
85.72339069471 2.775 12.109623964308478
85.72339069471 2.775 12.4282982791587
85.72339069471 2.775 12.746972594008923
85.72339069471 3.0 13.065646908859145
85.72339069471 2.775 13.38432122370937
85.72339069471 2.775 13.702995538559593
85.72339069471 2.625 14.021669853409815
85.72339069471 3.225 14.340344168260039
85.72339069471 3.3 14.65901848311026
85.72339069471 3.225 14.977692797960485
85.72339069471 3.3 15.296367112810707
85.72339069471 3.0 15.61504142766093
85.72339069471 3.525 15.933715742511154
85.72339069471 3.4499999999999997 16.252390057361378
85.72339069471 3.4499999999999997 16.5710643722116
85.72339069471 3.3 16.889738687061822
85.72339069471 3.4499999999999997 17.208413001912046
85.72339069471 3.8249999999999997 17.52708731676227
85.72339069471 4.125 17.845761631612493
85.72339069471 3.8249999999999997 18.164435946462714
85.72339069471 4.125 18.483110261312937
85.72339069471 3.975 18.80178457616316
85.72339069471 3.6 19.120458891013385
85.72339069471 4.05 19.43913320586361
85.72339069471 4.425 19.75780752071383
85.72339069471 5.325 20.076481835564053
85.72339069471 5.0249999999999995 20.395156150414277
85.72339069471 4.5 20.7138304652645
85.72339069471 4.5 21.032504780114724
85.72339069471 3.225 21.351179094964944
85.72339069471 3.0749999999999997 21.66985340981517
85.72339069471 1.5 21.988527724665392
85.72339069471 3.0 22.307202039515616
85.72339069471 3.0 22.62587635436584
85.72339069471 3.525 22.94455066921606
85.72339069471 3.975 23.263224984066284
85.72339069471 2.55 23.581899298916507
85.72339069471 2.6999999999999997 23.90057361376673
85.72339069471 0.0 24.219247928616955
85.72339069471 3.75 24.537922243467175
85.72339069471 4.6499999999999995 24.8565965583174
85.72339069471 6.0 25.175270873167623
85.72339069471 5.7 25.493945188017847
85.72339069471 4.95 25.81261950286807
85.72339069471 3.75 26.13129381771829
85.72339069471 3.375 26.449968132568515
85.72339069471 2.85 26.76864244741874
85.72339069471 3.9 27.087316762268962
85.72339069471 2.85 27.405991077119186
85.72339069471 3.3 27.724665391969406
85.72339069471 3.3 28.04333970681963
85.72339069471 2.6999999999999997 28.362014021669854
85.72339069471 2.55 28.680688336520078
85.72339069471 2.175 28.9993626513703
85.72339069471 1.65 29.31803696622052
85.72339069471 1.95 29.636711281070745
85.72339069471 1.7249999999999999 29.95538559592097
85.72339069471 0.0 30.274059910771193
85.72339069471 2.025 30.592734225621413
85.72339069471 0.75 30.911408540471637
85.72339069471 0.0 31.23008285532186
85.72339069471 0.6749999999999999 31.548757170172085
85.72339069471 2.175 31.86743148502231
85.72339069471 1.3499999999999999 32.18610579987253
85.72339069471 3.15 32.504780114722756
85.72339069471 1.875 32.823454429572976
85.72339069471 3.15 33.1421287444232
85.72339069471 1.05 33.460803059273424
85.72339069471 1.65 33.779477374123644
85.72339069471 0.0 34.09815168897387
85.72339069471 0.375 34.41682600382409
85.72339069471 1.65 34.73550031867431
85.72339069471 1.575 35.05417463352454
85.72339069471 0.0 35.37284894837476
85.72339069471 0.075 35.69152326322499
85.72339069471 0.0 36.01019757807521
85.72339069471 1.95 36.32887189292543
85.72339069471 0.75 36.647546207775655
85.72339069471 2.25 36.966220522625875
85.72339069471 2.25 37.2848948374761
85.72339069471 3.3 37.60356915232632
85.72339069471 2.85 37.92224346717654
85.72339069471 1.875 38.24091778202677
85.72339069471 2.4 38.55959209687699
85.72339069471 2.55 38.87826641172722
85.72339069471 2.25 39.19694072657744
85.72339069471 0.0 39.51561504142766
85.72339069471 1.8 39.834289356277885
85.72339069471 2.1 40.152963671128106
85.72339069471 1.575 40.47163798597833
85.72339069471 1.05 40.79031230082855
85.72339069471 0.6 41.10898661567877
85.72339069471 2.175 41.427660930529
85.72339069471 1.3499999999999999 41.74633524537922
85.72339069471 1.575 42.06500956022945
85.72339069471 1.8 42.38368387507967
85.72339069471 0.0 42.70235818992989
85.72339069471 1.3499999999999999 43.021032504780116
85.72339069471 0.525 43.33970681963034
85.72339069471 0.225 43.658381134480564
85.72339069471 1.3499999999999999 43.977055449330784
85.72339069471 0.0 44.295729764181004
85.72339069471 0.0 44.61440407903123
85.72339069471 1.8 44.93307839388145
85.72339069471 0.0 45.25175270873168
85.72339069471 0.0 45.5704270235819
85.72339069471 0.0 45.88910133843212
85.72339069471 2.175 46.20777565328235
85.72339069471 0.0 46.52644996813257
85.72339069471 1.8 46.845124282982795
85.72339069471 1.3499999999999999 47.163798597833015
85.72339069471 2.175 47.482472912683235
85.72339069471 1.3499999999999999 47.80114722753346
85.72339069471 1.875 48.11982154238368
85.72339069471 0.975 48.43849585723391
85.72339069471 1.65 48.75717017208413
85.72339069471 0.825 49.07584448693435
85.72339069471 0.375 49.39451880178458
85.72339069471 3.0 49.7131931166348
85.72339069471 2.25 50.031867431485026
85.72339069471 2.25 50.350541746335246
85.72339069471 1.575 50.669216061185466
85.72339069471 3.0 50.98789037603569
85.72339069471 3.0 51.306564690885914
85.72339069471 2.3249999999999997 51.62523900573614
85.72339069471 1.7249999999999999 51.94391332058636
85.72339069471 2.3249999999999997 52.26258763543658
85.72339069471 2.025 52.58126195028681
85.72339069471 2.4 52.89993626513703
85.72339069471 0.0 53.218610579987256
85.72339069471 0.0 53.53728489483748
85.72339069471 0.825 53.8559592096877
85.72339069471 2.025 54.174633524537924
85.72339069471 1.8 54.493307839388144
85.72339069471 0.975 54.81198215423837
85.72339069471 1.65 55.13065646908859
85.72339069471 0.0 55.44933078393881
85.72339069471 0.0 55.76800509878904
85.72339069471 1.8 56.08667941363926
85.72339069471 1.7249999999999999 56.40535372848949
85.72339069471 0.3 56.72402804333971
85.72339069471 0.075 57.04270235818993
85.72339069471 1.8 57.361376673040155
85.72339069471 2.3249999999999997 57.680050987890375
85.72339069471 1.8 57.9987253027406
85.72339069471 1.65 58.31739961759082
85.72339069471 0.6749999999999999 58.63607393244104
85.72339069471 1.575 58.95474824729127
85.72339069471 0.0 59.27342256214149
85.72339069471 0.0 59.59209687699172
85.72339069471 0.45 59.91077119184194
85.72339069471 1.7249999999999999 60.22944550669216
85.72339069471 2.175 60.548119821542386
85.72339069471 2.4 60.866794136392606
85.72339069471 2.175 61.185468451242826
85.72339069471 1.7249999999999999 61.504142766093054
85.72339069471 2.775 61.822817080943274
85.72339069471 2.85 62.1414913957935
85.72339069471 2.1 62.46016571064372
85.72339069471 2.475 62.77884002549394
85.72339069471 4.05 63.09751434034417
85.72339069471 2.4 63.41618865519439
85.72339069471 2.3249999999999997 63.73486297004462
85.72339069471 1.275 64.05353728489484
85.72339069471 2.3249999999999997 64.37221159974506
85.72339069471 2.175 64.69088591459528
85.72339069471 2.625 65.00956022944551
85.72339069471 2.25 65.32823454429573
85.72339069471 3.375 65.64690885914595
85.72339069471 2.55 65.96558317399618
85.72339069471 2.4 66.2842574888464
85.72339069471 1.875 66.60293180369662
85.72339069471 2.025 66.92160611854685
85.72339069471 1.3499999999999999 67.24028043339707
85.72339069471 1.875 67.55895474824729
85.72339069471 1.7249999999999999 67.87762906309752
85.72339069471 3.375 68.19630337794774
85.72339069471 3.375 68.51497769279796
85.72339069471 2.625 68.83365200764818
85.72339069471 1.875 69.15232632249841
85.72339069471 0.6749999999999999 69.47100063734862
85.72339069471 3.15 69.78967495219885
85.72339069471 2.1 70.10834926704908
85.72339069471 3.525 70.4270235818993
85.72339069471 3.8249999999999997 70.74569789674952
85.72339069471 2.625 71.06437221159975
85.72339069471 0.0 71.38304652644997
85.72339069471 0.375 71.70172084130019
85.72339069471 0.0 72.02039515615041
85.72339069471 2.6999999999999997 72.33906947100064
85.72339069471 2.4 72.65774378585085
85.72339069471 2.625 72.97641810070108
85.72339069471 2.6999999999999997 73.29509241555131
86.04206500956023 2.25 0.0
86.04206500956023 2.4 0.3186743148502231
86.04206500956023 2.25 0.6373486297004461
86.04206500956023 2.175 0.9560229445506692
86.04206500956023 2.55 1.2746972594008923
86.04206500956023 2.175 1.5933715742511154
86.04206500956023 2.55 1.9120458891013383
86.04206500956023 2.475 2.2307202039515617
86.04206500956023 2.175 2.5493945188017846
86.04206500956023 2.25 2.8680688336520075
86.04206500956023 2.55 3.186743148502231
86.04206500956023 2.625 3.5054174633524537
86.04206500956023 2.475 3.8240917782026767
86.04206500956023 2.25 4.1427660930529
86.04206500956023 2.475 4.461440407903123
86.04206500956023 2.55 4.780114722753346
86.04206500956023 2.625 5.098789037603569
86.04206500956023 2.625 5.417463352453792
86.04206500956023 2.4 5.736137667304015
86.04206500956023 2.475 6.054811982154239
86.04206500956023 2.475 6.373486297004462
86.04206500956023 2.475 6.692160611854685
86.04206500956023 2.55 7.0108349267049075
86.04206500956023 2.4 7.32950924155513
86.04206500956023 3.0 7.648183556405353
86.04206500956023 2.625 7.966857871255577
86.04206500956023 2.55 8.2855321861058
86.04206500956023 2.55 8.604206500956023
86.04206500956023 3.0 8.922880815806247
86.04206500956023 2.775 9.241555130656469
86.04206500956023 3.0 9.560229445506693
86.04206500956023 3.0 9.878903760356915
86.04206500956023 3.0 10.197578075207138
86.04206500956023 3.0 10.516252390057362
86.04206500956023 3.0 10.834926704907584
86.04206500956023 3.225 11.153601019757808
86.04206500956023 3.0 11.47227533460803
86.04206500956023 3.0749999999999997 11.790949649458254
86.04206500956023 2.6999999999999997 12.109623964308478
86.04206500956023 2.85 12.4282982791587
86.04206500956023 3.0 12.746972594008923
86.04206500956023 3.15 13.065646908859145
86.04206500956023 3.15 13.38432122370937
86.04206500956023 3.0749999999999997 13.702995538559593
86.04206500956023 2.775 14.021669853409815
86.04206500956023 3.225 14.340344168260039
86.04206500956023 3.0 14.65901848311026
86.04206500956023 3.225 14.977692797960485
86.04206500956023 3.15 15.296367112810707
86.04206500956023 3.3 15.61504142766093
86.04206500956023 3.3 15.933715742511154
86.04206500956023 3.4499999999999997 16.252390057361378
86.04206500956023 3.375 16.5710643722116
86.04206500956023 3.675 16.889738687061822
86.04206500956023 3.75 17.208413001912046
86.04206500956023 3.75 17.52708731676227
86.04206500956023 4.2 17.845761631612493
86.04206500956023 4.125 18.164435946462714
86.04206500956023 3.975 18.483110261312937
86.04206500956023 3.8249999999999997 18.80178457616316
86.04206500956023 3.0749999999999997 19.120458891013385
86.04206500956023 3.8249999999999997 19.43913320586361
86.04206500956023 4.125 19.75780752071383
86.04206500956023 5.0249999999999995 20.076481835564053
86.04206500956023 5.25 20.395156150414277
86.04206500956023 4.875 20.7138304652645
86.04206500956023 4.125 21.032504780114724
86.04206500956023 3.4499999999999997 21.351179094964944
86.04206500956023 2.85 21.66985340981517
86.04206500956023 2.775 21.988527724665392
86.04206500956023 3.675 22.307202039515616
86.04206500956023 3.3 22.62587635436584
86.04206500956023 4.35 22.94455066921606
86.04206500956023 3.225 23.263224984066284
86.04206500956023 4.2749999999999995 23.581899298916507
86.04206500956023 2.85 23.90057361376673
86.04206500956023 0.0 24.219247928616955
86.04206500956023 3.0 24.537922243467175
86.04206500956023 4.95 24.8565965583174
86.04206500956023 4.125 25.175270873167623
86.04206500956023 4.5 25.493945188017847
86.04206500956023 3.75 25.81261950286807
86.04206500956023 3.975 26.13129381771829
86.04206500956023 3.975 26.449968132568515
86.04206500956023 2.6999999999999997 26.76864244741874
86.04206500956023 3.9 27.087316762268962
86.04206500956023 3.0749999999999997 27.405991077119186
86.04206500956023 5.625 27.724665391969406
86.04206500956023 4.575 28.04333970681963
86.04206500956023 2.775 28.362014021669854
86.04206500956023 2.55 28.680688336520078
86.04206500956023 3.0749999999999997 28.9993626513703
86.04206500956023 2.475 29.31803696622052
86.04206500956023 2.1 29.636711281070745
86.04206500956023 2.3249999999999997 29.95538559592097
86.04206500956023 2.4 30.274059910771193
86.04206500956023 1.875 30.592734225621413
86.04206500956023 2.475 30.911408540471637
86.04206500956023 1.575 31.23008285532186
86.04206500956023 1.275 31.548757170172085
86.04206500956023 0.75 31.86743148502231
86.04206500956023 2.1 32.18610579987253
86.04206500956023 1.425 32.504780114722756
86.04206500956023 1.575 32.823454429572976
86.04206500956023 1.7249999999999999 33.1421287444232
86.04206500956023 1.875 33.460803059273424
86.04206500956023 0.075 33.779477374123644
86.04206500956023 1.7249999999999999 34.09815168897387
86.04206500956023 0.0 34.41682600382409
86.04206500956023 2.55 34.73550031867431
86.04206500956023 1.05 35.05417463352454
86.04206500956023 1.65 35.37284894837476
86.04206500956023 2.175 35.69152326322499
86.04206500956023 1.7249999999999999 36.01019757807521
86.04206500956023 0.975 36.32887189292543
86.04206500956023 1.5 36.647546207775655
86.04206500956023 2.4 36.966220522625875
86.04206500956023 1.5 37.2848948374761
86.04206500956023 2.775 37.60356915232632
86.04206500956023 1.5 37.92224346717654
86.04206500956023 1.3499999999999999 38.24091778202677
86.04206500956023 2.175 38.55959209687699
86.04206500956023 1.275 38.87826641172722
86.04206500956023 2.4 39.19694072657744
86.04206500956023 1.5 39.51561504142766
86.04206500956023 0.45 39.834289356277885
86.04206500956023 1.575 40.152963671128106
86.04206500956023 2.025 40.47163798597833
86.04206500956023 2.4 40.79031230082855
86.04206500956023 1.95 41.10898661567877
86.04206500956023 0.375 41.427660930529
86.04206500956023 1.425 41.74633524537922
86.04206500956023 1.875 42.06500956022945
86.04206500956023 1.875 42.38368387507967
86.04206500956023 0.975 42.70235818992989
86.04206500956023 0.0 43.021032504780116
86.04206500956023 2.55 43.33970681963034
86.04206500956023 1.8 43.658381134480564
86.04206500956023 0.975 43.977055449330784
86.04206500956023 0.0 44.295729764181004
86.04206500956023 0.375 44.61440407903123
86.04206500956023 0.0 44.93307839388145
86.04206500956023 0.3 45.25175270873168
86.04206500956023 0.45 45.5704270235819
86.04206500956023 1.2 45.88910133843212
86.04206500956023 2.475 46.20777565328235
86.04206500956023 1.7249999999999999 46.52644996813257
86.04206500956023 1.875 46.845124282982795
86.04206500956023 1.95 47.163798597833015
86.04206500956023 2.55 47.482472912683235
86.04206500956023 0.975 47.80114722753346
86.04206500956023 2.025 48.11982154238368
86.04206500956023 2.025 48.43849585723391
86.04206500956023 1.7249999999999999 48.75717017208413
86.04206500956023 1.8 49.07584448693435
86.04206500956023 1.3499999999999999 49.39451880178458
86.04206500956023 2.475 49.7131931166348
86.04206500956023 2.55 50.031867431485026
86.04206500956023 0.45 50.350541746335246
86.04206500956023 1.7249999999999999 50.669216061185466
86.04206500956023 1.875 50.98789037603569
86.04206500956023 3.225 51.306564690885914
86.04206500956023 1.7249999999999999 51.62523900573614
86.04206500956023 1.875 51.94391332058636
86.04206500956023 2.025 52.26258763543658
86.04206500956023 1.3499999999999999 52.58126195028681
86.04206500956023 0.6 52.89993626513703
86.04206500956023 1.875 53.218610579987256
86.04206500956023 0.0 53.53728489483748
86.04206500956023 2.025 53.8559592096877
86.04206500956023 1.3499999999999999 54.174633524537924
86.04206500956023 0.0 54.493307839388144
86.04206500956023 1.7249999999999999 54.81198215423837
86.04206500956023 1.875 55.13065646908859
86.04206500956023 0.0 55.44933078393881
86.04206500956023 0.0 55.76800509878904
86.04206500956023 0.6749999999999999 56.08667941363926
86.04206500956023 2.1 56.40535372848949
86.04206500956023 0.0 56.72402804333971
86.04206500956023 0.6749999999999999 57.04270235818993
86.04206500956023 1.5 57.361376673040155
86.04206500956023 1.425 57.680050987890375
86.04206500956023 1.275 57.9987253027406
86.04206500956023 0.525 58.31739961759082
86.04206500956023 0.0 58.63607393244104
86.04206500956023 2.6999999999999997 58.95474824729127
86.04206500956023 0.075 59.27342256214149
86.04206500956023 0.15 59.59209687699172
86.04206500956023 0.75 59.91077119184194
86.04206500956023 0.9 60.22944550669216
86.04206500956023 2.775 60.548119821542386
86.04206500956023 1.95 60.866794136392606
86.04206500956023 2.175 61.185468451242826
86.04206500956023 1.425 61.504142766093054
86.04206500956023 3.3 61.822817080943274
86.04206500956023 2.025 62.1414913957935
86.04206500956023 2.25 62.46016571064372
86.04206500956023 3.75 62.77884002549394
86.04206500956023 2.85 63.09751434034417
86.04206500956023 2.25 63.41618865519439
86.04206500956023 1.425 63.73486297004462
86.04206500956023 2.175 64.05353728489484
86.04206500956023 2.025 64.37221159974506
86.04206500956023 2.1 64.69088591459528
86.04206500956023 1.875 65.00956022944551
86.04206500956023 2.3249999999999997 65.32823454429573
86.04206500956023 2.775 65.64690885914595
86.04206500956023 2.85 65.96558317399618
86.04206500956023 2.3249999999999997 66.2842574888464
86.04206500956023 1.425 66.60293180369662
86.04206500956023 1.425 66.92160611854685
86.04206500956023 1.575 67.24028043339707
86.04206500956023 0.975 67.55895474824729
86.04206500956023 0.9 67.87762906309752
86.04206500956023 2.175 68.19630337794774
86.04206500956023 2.55 68.51497769279796
86.04206500956023 1.95 68.83365200764818
86.04206500956023 1.2 69.15232632249841
86.04206500956023 0.0 69.47100063734862
86.04206500956023 2.4 69.78967495219885
86.04206500956023 0.0 70.10834926704908
86.04206500956023 1.7249999999999999 70.4270235818993
86.04206500956023 3.375 70.74569789674952
86.04206500956023 4.2749999999999995 71.06437221159975
86.04206500956023 0.0 71.38304652644997
86.04206500956023 0.0 71.70172084130019
86.04206500956023 1.3499999999999999 72.02039515615041
86.04206500956023 2.55 72.33906947100064
86.04206500956023 1.95 72.65774378585085
86.04206500956023 0.0 72.97641810070108
86.04206500956023 1.875 73.29509241555131
86.36073932441045 2.55 0.0
86.36073932441045 2.475 0.3186743148502231
86.36073932441045 2.3249999999999997 0.6373486297004461
86.36073932441045 2.25 0.9560229445506692
86.36073932441045 2.625 1.2746972594008923
86.36073932441045 2.175 1.5933715742511154
86.36073932441045 2.55 1.9120458891013383
86.36073932441045 2.55 2.2307202039515617
86.36073932441045 2.6999999999999997 2.5493945188017846
86.36073932441045 2.6999999999999997 2.8680688336520075
86.36073932441045 2.55 3.186743148502231
86.36073932441045 2.475 3.5054174633524537
86.36073932441045 2.55 3.8240917782026767
86.36073932441045 2.4 4.1427660930529
86.36073932441045 2.4 4.461440407903123
86.36073932441045 2.475 4.780114722753346
86.36073932441045 2.625 5.098789037603569
86.36073932441045 2.25 5.417463352453792
86.36073932441045 2.4 5.736137667304015
86.36073932441045 2.475 6.054811982154239
86.36073932441045 2.4 6.373486297004462
86.36073932441045 2.4 6.692160611854685
86.36073932441045 2.625 7.0108349267049075
86.36073932441045 2.55 7.32950924155513
86.36073932441045 2.55 7.648183556405353
86.36073932441045 2.55 7.966857871255577
86.36073932441045 2.775 8.2855321861058
86.36073932441045 3.0 8.604206500956023
86.36073932441045 2.85 8.922880815806247
86.36073932441045 2.775 9.241555130656469
86.36073932441045 3.0 9.560229445506693
86.36073932441045 3.0 9.878903760356915
86.36073932441045 3.0 10.197578075207138
86.36073932441045 3.0749999999999997 10.516252390057362
86.36073932441045 3.0749999999999997 10.834926704907584
86.36073932441045 3.225 11.153601019757808
86.36073932441045 3.15 11.47227533460803
86.36073932441045 3.0749999999999997 11.790949649458254
86.36073932441045 3.0 12.109623964308478
86.36073932441045 2.775 12.4282982791587
86.36073932441045 3.0 12.746972594008923
86.36073932441045 3.15 13.065646908859145
86.36073932441045 3.15 13.38432122370937
86.36073932441045 3.15 13.702995538559593
86.36073932441045 3.15 14.021669853409815
86.36073932441045 2.625 14.340344168260039
86.36073932441045 3.15 14.65901848311026
86.36073932441045 3.0749999999999997 14.977692797960485
86.36073932441045 3.0 15.296367112810707
86.36073932441045 3.3 15.61504142766093
86.36073932441045 3.4499999999999997 15.933715742511154
86.36073932441045 3.525 16.252390057361378
86.36073932441045 3.525 16.5710643722116
86.36073932441045 3.6 16.889738687061822
86.36073932441045 3.8249999999999997 17.208413001912046
86.36073932441045 4.05 17.52708731676227
86.36073932441045 4.05 17.845761631612493
86.36073932441045 4.05 18.164435946462714
86.36073932441045 4.05 18.483110261312937
86.36073932441045 3.75 18.80178457616316
86.36073932441045 3.75 19.120458891013385
86.36073932441045 3.525 19.43913320586361
86.36073932441045 4.425 19.75780752071383
86.36073932441045 5.0249999999999995 20.076481835564053
86.36073932441045 5.25 20.395156150414277
86.36073932441045 5.25 20.7138304652645
86.36073932441045 4.425 21.032504780114724
86.36073932441045 3.15 21.351179094964944
86.36073932441045 2.625 21.66985340981517
86.36073932441045 3.15 21.988527724665392
86.36073932441045 3.0 22.307202039515616
86.36073932441045 3.675 22.62587635436584
86.36073932441045 5.0249999999999995 22.94455066921606
86.36073932441045 4.5 23.263224984066284
86.36073932441045 4.425 23.581899298916507
86.36073932441045 5.0249999999999995 23.90057361376673
86.36073932441045 2.25 24.219247928616955
86.36073932441045 1.8 24.537922243467175
86.36073932441045 3.15 24.8565965583174
86.36073932441045 3.8249999999999997 25.175270873167623
86.36073932441045 3.975 25.493945188017847
86.36073932441045 4.2749999999999995 25.81261950286807
86.36073932441045 3.6 26.13129381771829
86.36073932441045 3.9 26.449968132568515
86.36073932441045 3.8249999999999997 26.76864244741874
86.36073932441045 3.8249999999999997 27.087316762268962
86.36073932441045 3.0 27.405991077119186
86.36073932441045 2.1 27.724665391969406
86.36073932441045 1.875 28.04333970681963
86.36073932441045 2.6999999999999997 28.362014021669854
86.36073932441045 2.25 28.680688336520078
86.36073932441045 1.275 28.9993626513703
86.36073932441045 2.775 29.31803696622052
86.36073932441045 1.8 29.636711281070745
86.36073932441045 2.4 29.95538559592097
86.36073932441045 2.3249999999999997 30.274059910771193
86.36073932441045 1.5 30.592734225621413
86.36073932441045 2.6999999999999997 30.911408540471637
86.36073932441045 2.3249999999999997 31.23008285532186
86.36073932441045 1.575 31.548757170172085
86.36073932441045 0.6 31.86743148502231
86.36073932441045 2.025 32.18610579987253
86.36073932441045 2.6999999999999997 32.504780114722756
86.36073932441045 0.6749999999999999 32.823454429572976
86.36073932441045 1.875 33.1421287444232
86.36073932441045 2.4 33.460803059273424
86.36073932441045 1.425 33.779477374123644
86.36073932441045 1.8 34.09815168897387
86.36073932441045 2.475 34.41682600382409
86.36073932441045 1.95 34.73550031867431
86.36073932441045 1.275 35.05417463352454
86.36073932441045 0.15 35.37284894837476
86.36073932441045 2.25 35.69152326322499
86.36073932441045 2.1 36.01019757807521
86.36073932441045 0.825 36.32887189292543
86.36073932441045 0.0 36.647546207775655
86.36073932441045 1.7249999999999999 36.966220522625875
86.36073932441045 2.3249999999999997 37.2848948374761
86.36073932441045 3.0749999999999997 37.60356915232632
86.36073932441045 2.4 37.92224346717654
86.36073932441045 2.4 38.24091778202677
86.36073932441045 1.875 38.55959209687699
86.36073932441045 1.95 38.87826641172722
86.36073932441045 2.4 39.19694072657744
86.36073932441045 1.7249999999999999 39.51561504142766
86.36073932441045 1.3499999999999999 39.834289356277885
86.36073932441045 0.0 40.152963671128106
86.36073932441045 2.475 40.47163798597833
86.36073932441045 3.3 40.79031230082855
86.36073932441045 1.875 41.10898661567877
86.36073932441045 0.0 41.427660930529
86.36073932441045 0.0 41.74633524537922
86.36073932441045 1.575 42.06500956022945
86.36073932441045 1.95 42.38368387507967
86.36073932441045 0.0 42.70235818992989
86.36073932441045 0.0 43.021032504780116
86.36073932441045 1.2 43.33970681963034
86.36073932441045 2.1 43.658381134480564
86.36073932441045 1.575 43.977055449330784
86.36073932441045 0.6 44.295729764181004
86.36073932441045 2.025 44.61440407903123
86.36073932441045 0.375 44.93307839388145
86.36073932441045 1.275 45.25175270873168
86.36073932441045 0.0 45.5704270235819
86.36073932441045 0.225 45.88910133843212
86.36073932441045 1.7249999999999999 46.20777565328235
86.36073932441045 1.2 46.52644996813257
86.36073932441045 1.875 46.845124282982795
86.36073932441045 2.025 47.163798597833015
86.36073932441045 0.0 47.482472912683235
86.36073932441045 1.875 47.80114722753346
86.36073932441045 1.275 48.11982154238368
86.36073932441045 1.875 48.43849585723391
86.36073932441045 1.65 48.75717017208413
86.36073932441045 1.2 49.07584448693435
86.36073932441045 1.575 49.39451880178458
86.36073932441045 2.4 49.7131931166348
86.36073932441045 1.875 50.031867431485026
86.36073932441045 1.275 50.350541746335246
86.36073932441045 0.6749999999999999 50.669216061185466
86.36073932441045 0.825 50.98789037603569
86.36073932441045 1.95 51.306564690885914
86.36073932441045 2.025 51.62523900573614
86.36073932441045 2.25 51.94391332058636
86.36073932441045 1.425 52.26258763543658
86.36073932441045 1.275 52.58126195028681
86.36073932441045 0.0 52.89993626513703
86.36073932441045 0.0 53.218610579987256
86.36073932441045 1.875 53.53728489483748
86.36073932441045 2.3249999999999997 53.8559592096877
86.36073932441045 1.575 54.174633524537924
86.36073932441045 0.975 54.493307839388144
86.36073932441045 0.6 54.81198215423837
86.36073932441045 1.3499999999999999 55.13065646908859
86.36073932441045 1.05 55.44933078393881
86.36073932441045 0.0 55.76800509878904
86.36073932441045 1.3499999999999999 56.08667941363926
86.36073932441045 1.275 56.40535372848949
86.36073932441045 0.525 56.72402804333971
86.36073932441045 0.0 57.04270235818993
86.36073932441045 0.825 57.361376673040155
86.36073932441045 1.425 57.680050987890375
86.36073932441045 1.8 57.9987253027406
86.36073932441045 0.975 58.31739961759082
86.36073932441045 1.5 58.63607393244104
86.36073932441045 0.9 58.95474824729127
86.36073932441045 0.0 59.27342256214149
86.36073932441045 1.425 59.59209687699172
86.36073932441045 0.525 59.91077119184194
86.36073932441045 0.0 60.22944550669216
86.36073932441045 0.0 60.548119821542386
86.36073932441045 1.275 60.866794136392606
86.36073932441045 0.6749999999999999 61.185468451242826
86.36073932441045 1.275 61.504142766093054
86.36073932441045 3.15 61.822817080943274
86.36073932441045 2.4 62.1414913957935
86.36073932441045 1.875 62.46016571064372
86.36073932441045 2.55 62.77884002549394
86.36073932441045 2.3249999999999997 63.09751434034417
86.36073932441045 2.1 63.41618865519439
86.36073932441045 0.0 63.73486297004462
86.36073932441045 1.275 64.05353728489484
86.36073932441045 1.95 64.37221159974506
86.36073932441045 1.65 64.69088591459528
86.36073932441045 1.95 65.00956022944551
86.36073932441045 2.175 65.32823454429573
86.36073932441045 2.1 65.64690885914595
86.36073932441045 3.15 65.96558317399618
86.36073932441045 2.775 66.2842574888464
86.36073932441045 2.55 66.60293180369662
86.36073932441045 2.025 66.92160611854685
86.36073932441045 1.7249999999999999 67.24028043339707
86.36073932441045 1.425 67.55895474824729
86.36073932441045 1.425 67.87762906309752
86.36073932441045 1.425 68.19630337794774
86.36073932441045 1.275 68.51497769279796
86.36073932441045 2.025 68.83365200764818
86.36073932441045 0.825 69.15232632249841
86.36073932441045 0.0 69.47100063734862
86.36073932441045 2.4 69.78967495219885
86.36073932441045 1.275 70.10834926704908
86.36073932441045 0.15 70.4270235818993
86.36073932441045 2.3249999999999997 70.74569789674952
86.36073932441045 2.25 71.06437221159975
86.36073932441045 1.05 71.38304652644997
86.36073932441045 0.375 71.70172084130019
86.36073932441045 0.3 72.02039515615041
86.36073932441045 0.0 72.33906947100064
86.36073932441045 2.175 72.65774378585085
86.36073932441045 0.6749999999999999 72.97641810070108
86.36073932441045 0.0 73.29509241555131
86.67941363926067 2.55 0.0
86.67941363926067 2.55 0.3186743148502231
86.67941363926067 2.25 0.6373486297004461
86.67941363926067 2.55 0.9560229445506692
86.67941363926067 2.55 1.2746972594008923
86.67941363926067 2.625 1.5933715742511154
86.67941363926067 2.175 1.9120458891013383
86.67941363926067 2.4 2.2307202039515617
86.67941363926067 2.25 2.5493945188017846
86.67941363926067 2.3249999999999997 2.8680688336520075
86.67941363926067 2.475 3.186743148502231
86.67941363926067 2.475 3.5054174633524537
86.67941363926067 2.55 3.8240917782026767
86.67941363926067 2.4 4.1427660930529
86.67941363926067 2.55 4.461440407903123
86.67941363926067 2.6999999999999997 4.780114722753346
86.67941363926067 2.6999999999999997 5.098789037603569
86.67941363926067 2.625 5.417463352453792
86.67941363926067 2.4 5.736137667304015
86.67941363926067 2.475 6.054811982154239
86.67941363926067 2.55 6.373486297004462
86.67941363926067 2.4 6.692160611854685
86.67941363926067 2.6999999999999997 7.0108349267049075
86.67941363926067 2.55 7.32950924155513
86.67941363926067 2.55 7.648183556405353
86.67941363926067 2.55 7.966857871255577
86.67941363926067 2.6999999999999997 8.2855321861058
86.67941363926067 3.0 8.604206500956023
86.67941363926067 3.0749999999999997 8.922880815806247
86.67941363926067 3.0749999999999997 9.241555130656469
86.67941363926067 3.0749999999999997 9.560229445506693
86.67941363926067 2.775 9.878903760356915
86.67941363926067 3.15 10.197578075207138
86.67941363926067 3.15 10.516252390057362
86.67941363926067 3.15 10.834926704907584
86.67941363926067 3.0749999999999997 11.153601019757808
86.67941363926067 3.15 11.47227533460803
86.67941363926067 3.0749999999999997 11.790949649458254
86.67941363926067 3.225 12.109623964308478
86.67941363926067 3.225 12.4282982791587
86.67941363926067 3.0 12.746972594008923
86.67941363926067 3.15 13.065646908859145
86.67941363926067 3.15 13.38432122370937
86.67941363926067 3.0749999999999997 13.702995538559593
86.67941363926067 2.775 14.021669853409815
86.67941363926067 3.15 14.340344168260039
86.67941363926067 3.3 14.65901848311026
86.67941363926067 3.0 14.977692797960485
86.67941363926067 3.0 15.296367112810707
86.67941363926067 3.525 15.61504142766093
86.67941363926067 3.525 15.933715742511154
86.67941363926067 3.525 16.252390057361378
86.67941363926067 3.675 16.5710643722116
86.67941363926067 3.675 16.889738687061822
86.67941363926067 3.6 17.208413001912046
86.67941363926067 3.975 17.52708731676227
86.67941363926067 3.9 17.845761631612493
86.67941363926067 4.2 18.164435946462714
86.67941363926067 4.2 18.483110261312937
86.67941363926067 3.975 18.80178457616316
86.67941363926067 3.75 19.120458891013385
86.67941363926067 3.9 19.43913320586361
86.67941363926067 4.125 19.75780752071383
86.67941363926067 5.0249999999999995 20.076481835564053
86.67941363926067 5.325 20.395156150414277
86.67941363926067 5.55 20.7138304652645
86.67941363926067 4.725 21.032504780114724
86.67941363926067 5.1 21.351179094964944
86.67941363926067 3.3 21.66985340981517
86.67941363926067 5.0249999999999995 21.988527724665392
86.67941363926067 3.4499999999999997 22.307202039515616
86.67941363926067 3.525 22.62587635436584
86.67941363926067 3.675 22.94455066921606
86.67941363926067 4.2 23.263224984066284
86.67941363926067 4.6499999999999995 23.581899298916507
86.67941363926067 3.8249999999999997 23.90057361376673
86.67941363926067 1.7249999999999999 24.219247928616955
86.67941363926067 1.275 24.537922243467175
86.67941363926067 3.225 24.8565965583174
86.67941363926067 3.6 25.175270873167623
86.67941363926067 3.6 25.493945188017847
86.67941363926067 3.675 25.81261950286807
86.67941363926067 3.15 26.13129381771829
86.67941363926067 2.625 26.449968132568515
86.67941363926067 4.125 26.76864244741874
86.67941363926067 3.3 27.087316762268962
86.67941363926067 2.625 27.405991077119186
86.67941363926067 2.55 27.724665391969406
86.67941363926067 2.55 28.04333970681963
86.67941363926067 2.4 28.362014021669854
86.67941363926067 2.625 28.680688336520078
86.67941363926067 3.375 28.9993626513703
86.67941363926067 3.375 29.31803696622052
86.67941363926067 2.85 29.636711281070745
86.67941363926067 3.15 29.95538559592097
86.67941363926067 2.475 30.274059910771193
86.67941363926067 2.625 30.592734225621413
86.67941363926067 3.4499999999999997 30.911408540471637
86.67941363926067 2.175 31.23008285532186
86.67941363926067 2.4 31.548757170172085
86.67941363926067 1.875 31.86743148502231
86.67941363926067 2.025 32.18610579987253
86.67941363926067 2.775 32.504780114722756
86.67941363926067 0.225 32.823454429572976
86.67941363926067 2.55 33.1421287444232
86.67941363926067 1.875 33.460803059273424
86.67941363926067 1.7249999999999999 33.779477374123644
86.67941363926067 2.25 34.09815168897387
86.67941363926067 1.575 34.41682600382409
86.67941363926067 1.875 34.73550031867431
86.67941363926067 2.3249999999999997 35.05417463352454
86.67941363926067 1.5 35.37284894837476
86.67941363926067 1.425 35.69152326322499
86.67941363926067 1.875 36.01019757807521
86.67941363926067 0.975 36.32887189292543
86.67941363926067 0.525 36.647546207775655
86.67941363926067 0.0 36.966220522625875
86.67941363926067 2.025 37.2848948374761
86.67941363926067 1.3499999999999999 37.60356915232632
86.67941363926067 1.875 37.92224346717654
86.67941363926067 2.025 38.24091778202677
86.67941363926067 1.275 38.55959209687699
86.67941363926067 1.95 38.87826641172722
86.67941363926067 2.3249999999999997 39.19694072657744
86.67941363926067 2.175 39.51561504142766
86.67941363926067 1.275 39.834289356277885
86.67941363926067 2.175 40.152963671128106
86.67941363926067 2.775 40.47163798597833
86.67941363926067 3.3 40.79031230082855
86.67941363926067 1.95 41.10898661567877
86.67941363926067 1.425 41.427660930529
86.67941363926067 0.0 41.74633524537922
86.67941363926067 1.275 42.06500956022945
86.67941363926067 2.25 42.38368387507967
86.67941363926067 1.65 42.70235818992989
86.67941363926067 1.8 43.021032504780116
86.67941363926067 0.0 43.33970681963034
86.67941363926067 1.875 43.658381134480564
86.67941363926067 1.05 43.977055449330784
86.67941363926067 1.425 44.295729764181004
86.67941363926067 0.75 44.61440407903123
86.67941363926067 0.825 44.93307839388145
86.67941363926067 1.65 45.25175270873168
86.67941363926067 0.15 45.5704270235819
86.67941363926067 2.55 45.88910133843212
86.67941363926067 2.025 46.20777565328235
86.67941363926067 1.3499999999999999 46.52644996813257
86.67941363926067 1.3499999999999999 46.845124282982795
86.67941363926067 2.4 47.163798597833015
86.67941363926067 1.275 47.482472912683235
86.67941363926067 0.3 47.80114722753346
86.67941363926067 0.375 48.11982154238368
86.67941363926067 0.825 48.43849585723391
86.67941363926067 1.5 48.75717017208413
86.67941363926067 1.65 49.07584448693435
86.67941363926067 0.225 49.39451880178458
86.67941363926067 2.025 49.7131931166348
86.67941363926067 1.575 50.031867431485026
86.67941363926067 2.025 50.350541746335246
86.67941363926067 2.025 50.669216061185466
86.67941363926067 1.275 50.98789037603569
86.67941363926067 1.8 51.306564690885914
86.67941363926067 2.25 51.62523900573614
86.67941363926067 2.25 51.94391332058636
86.67941363926067 0.9 52.26258763543658
86.67941363926067 2.25 52.58126195028681
86.67941363926067 1.875 52.89993626513703
86.67941363926067 0.0 53.218610579987256
86.67941363926067 2.4 53.53728489483748
86.67941363926067 1.875 53.8559592096877
86.67941363926067 1.875 54.174633524537924
86.67941363926067 0.9 54.493307839388144
86.67941363926067 0.6749999999999999 54.81198215423837
86.67941363926067 0.75 55.13065646908859
86.67941363926067 1.8 55.44933078393881
86.67941363926067 0.0 55.76800509878904
86.67941363926067 1.05 56.08667941363926
86.67941363926067 1.2 56.40535372848949
86.67941363926067 0.6 56.72402804333971
86.67941363926067 0.0 57.04270235818993
86.67941363926067 1.275 57.361376673040155
86.67941363926067 1.7249999999999999 57.680050987890375
86.67941363926067 0.0 57.9987253027406
86.67941363926067 1.875 58.31739961759082
86.67941363926067 1.275 58.63607393244104
86.67941363926067 1.575 58.95474824729127
86.67941363926067 2.025 59.27342256214149
86.67941363926067 1.8 59.59209687699172
86.67941363926067 1.5 59.91077119184194
86.67941363926067 0.0 60.22944550669216
86.67941363926067 0.75 60.548119821542386
86.67941363926067 1.3499999999999999 60.866794136392606
86.67941363926067 1.65 61.185468451242826
86.67941363926067 1.3499999999999999 61.504142766093054
86.67941363926067 2.1 61.822817080943274
86.67941363926067 1.5 62.1414913957935
86.67941363926067 1.7249999999999999 62.46016571064372
86.67941363926067 3.15 62.77884002549394
86.67941363926067 1.7249999999999999 63.09751434034417
86.67941363926067 2.025 63.41618865519439
86.67941363926067 0.975 63.73486297004462
86.67941363926067 0.0 64.05353728489484
86.67941363926067 1.65 64.37221159974506
86.67941363926067 1.65 64.69088591459528
86.67941363926067 2.025 65.00956022944551
86.67941363926067 1.65 65.32823454429573
86.67941363926067 2.55 65.64690885914595
86.67941363926067 4.125 65.96558317399618
86.67941363926067 3.15 66.2842574888464
86.67941363926067 1.875 66.60293180369662
86.67941363926067 2.175 66.92160611854685
86.67941363926067 2.1 67.24028043339707
86.67941363926067 1.3499999999999999 67.55895474824729
86.67941363926067 1.8 67.87762906309752
86.67941363926067 1.575 68.19630337794774
86.67941363926067 0.75 68.51497769279796
86.67941363926067 1.7249999999999999 68.83365200764818
86.67941363926067 0.0 69.15232632249841
86.67941363926067 1.2 69.47100063734862
86.67941363926067 2.025 69.78967495219885
86.67941363926067 1.275 70.10834926704908
86.67941363926067 0.375 70.4270235818993
86.67941363926067 0.0 70.74569789674952
86.67941363926067 2.3249999999999997 71.06437221159975
86.67941363926067 2.625 71.38304652644997
86.67941363926067 2.55 71.70172084130019
86.67941363926067 2.775 72.02039515615041
86.67941363926067 1.7249999999999999 72.33906947100064
86.67941363926067 0.0 72.65774378585085
86.67941363926067 2.625 72.97641810070108
86.67941363926067 1.7249999999999999 73.29509241555131
86.9980879541109 2.25 0.0
86.9980879541109 2.4 0.3186743148502231
86.9980879541109 2.175 0.6373486297004461
86.9980879541109 2.25 0.9560229445506692
86.9980879541109 2.25 1.2746972594008923
86.9980879541109 2.3249999999999997 1.5933715742511154
86.9980879541109 2.6999999999999997 1.9120458891013383
86.9980879541109 2.25 2.2307202039515617
86.9980879541109 2.625 2.5493945188017846
86.9980879541109 2.55 2.8680688336520075
86.9980879541109 2.4 3.186743148502231
86.9980879541109 2.6999999999999997 3.5054174633524537
86.9980879541109 2.6999999999999997 3.8240917782026767
86.9980879541109 2.55 4.1427660930529
86.9980879541109 2.55 4.461440407903123
86.9980879541109 2.625 4.780114722753346
86.9980879541109 2.55 5.098789037603569
86.9980879541109 2.6999999999999997 5.417463352453792
86.9980879541109 2.4 5.736137667304015
86.9980879541109 2.475 6.054811982154239
86.9980879541109 2.55 6.373486297004462
86.9980879541109 2.4 6.692160611854685
86.9980879541109 2.775 7.0108349267049075
86.9980879541109 2.55 7.32950924155513
86.9980879541109 2.55 7.648183556405353
86.9980879541109 2.775 7.966857871255577
86.9980879541109 2.775 8.2855321861058
86.9980879541109 3.0749999999999997 8.604206500956023
86.9980879541109 2.775 8.922880815806247
